ncols        582
nrows        34
xllcorner    28.442361111
yllcorner    -22.5423611111
cellsize     0.000277777778
NODATA_value 65535
65535 65535 65535 65535 65535 65535 65535 65535 65535 65535 65535 65535 65535 65535 65535 65535 65535 65535 65535 65535 65535 65535 65535 65535 65535 748 748 750 750 750 750 750 750 752 752 749 749 749 749 751 751 751 751 751 749 749 750 751 749 749 749 750 749 749 748 748 750 748 747 745 745 747 747 745 744 744 744 745 745 746 745 744 744 745 746 745 744 745 747 749 747 745 746 748 748 746 744 743 743 744 744 743 740 740 741 740 740 742 743 743 743 744 744 744 746 747 746 747 748 748 749 750 749 748 748 749 748 748 749 748 749 750 750 751 751 751 751 751 753 753 753 753 753 753 754 755 755 754 755 755 754 753 754 756 756 757 756 757 757 756 756 756 757 757 757 756 757 758 758 757 757 757 758 758 757 757 757 757 758 758 758 758 759 759 759 759 759 759 758 758 758 757 756 755 755 755 754 754 754 754 752 750 749 749 749 748 747 747 748 748 747 747 748 748 748 749 750 749 748 747 747 747 748 750 749 748 747 749 750 751 749 747 747 749 747 747 747 748 750 750 749 748 748 748 746 746 746 750 752 751 751 753 754 755 754 754 753 752 752 752 752 752 752 751 751 750 748 748 749 749 750 751 750 749 749 749 750 751 751 751 751 751 751 752 752 752 752 753 753 753 754 757 759 759 759 758 758 758 758 758 759 760 760 758 758 758 758 759 760 760 759 758 757 755 756 757 756 755 755 754 754 753 754 754 754 753 753 753 754 755 756 756 755 754 754 756 757 757 757 757 757 757 758 758 758 757 757 757 756 756 756 757 756 756 754 753 754 755 755 754 754 754 754 753 751 750 750 750 749 749 749 749 749 750 750 749 749 750 750 749 748 747 747 747 746 745 745 745 744 743 743 744 744 745 746 746 745 745 744 744 744 743 742 742 741 742 742 741 740 738 738 738 739 738 738 738 738 738 738 738 738 738 738 739 739 739 738 738 738 737 737 737 737 737 738 740 742 743 743 742 740 739 740 740 740 740 739 738 737 736 737 738 739 740 739 737 736 735 735 735 735 734 734 733 731 730 728 728 728 728 728 728 727 727 727 727 728 728 728 728 728 728 728 729 730 731 732 732 733 734 734 733 732 731 732 733 732 732 734 734 735 735 736 737 738 739 739 739 740 741 741 742 742 742 742 741 740 740 739 738 739 739 738 736 736 736 734 733 732 732 731 729 727 726 727 726 726 725 724 724 725 725 725 724 724 725 724 726 727 729 730 730 729 730 730 730 730 731 65535 65535 65535 65535 65535 65535 65535 65535 65535 65535 65535 65535 65535 65535 65535 65535 65535 65535 65535 65535 65535 65535 65535 65535 65535 65535 65535 65535 65535 65535 65535 65535 65535 65535
65535 65535 65535 65535 65535 65535 65535 65535 65535 65535 65535 65535 65535 65535 65535 65535 65535 65535 65535 65535 65535 65535 65535 65535 65535 750 750 752 751 750 750 750 750 751 750 749 749 750 751 752 752 751 751 751 750 749 749 749 749 749 750 748 747 746 747 749 748 747 745 744 744 745 745 744 744 744 744 744 744 744 745 744 744 745 745 744 744 744 745 745 744 743 745 747 747 744 743 742 742 742 744 742 740 740 740 739 740 742 743 743 744 744 744 744 745 746 747 747 748 748 748 749 749 748 748 748 748 748 748 749 749 750 751 752 752 751 751 751 752 753 752 751 751 751 753 754 754 753 754 754 753 753 754 755 756 755 755 756 756 755 755 755 756 756 756 757 758 759 758 758 758 757 757 757 757 757 757 757 757 758 758 758 758 759 759 759 759 757 757 757 758 757 756 755 754 753 752 753 754 755 753 751 749 749 750 749 748 747 748 747 747 747 747 748 747 748 749 748 747 747 747 747 748 751 751 749 748 748 749 749 747 745 746 748 747 747 748 750 750 750 748 747 747 747 747 746 747 749 751 751 751 752 754 754 754 754 754 753 753 752 752 752 752 752 751 749 747 747 748 748 748 750 750 750 750 749 750 753 752 751 751 751 751 753 753 752 753 753 753 754 756 757 759 759 759 758 758 758 758 759 759 760 760 759 758 758 759 759 759 759 759 758 757 756 756 757 756 754 753 753 752 752 754 754 753 752 752 752 753 755 756 755 754 754 754 755 756 755 755 757 757 757 757 757 756 756 756 756 755 755 755 755 756 755 753 753 753 754 754 752 751 753 753 752 750 750 750 749 749 749 750 749 748 749 749 749 749 750 750 750 749 748 747 746 746 746 746 745 743 742 742 742 743 744 745 744 744 743 743 744 744 744 743 742 741 741 742 741 739 738 738 738 738 738 737 738 738 738 737 737 738 738 737 737 738 737 737 737 738 737 737 737 737 737 738 740 742 742 742 741 740 739 739 739 738 737 738 738 738 738 738 740 740 740 739 738 737 735 735 735 734 733 733 732 731 729 728 728 728 728 728 728 727 727 727 727 728 728 728 728 728 728 728 729 730 731 732 733 733 733 732 732 731 731 731 731 730 730 732 734 735 736 736 737 737 738 739 739 739 740 741 742 742 743 742 740 739 739 739 738 738 738 736 734 735 736 734 732 731 730 730 729 727 726 725 725 724 724 723 723 725 726 725 724 724 725 725 726 727 728 728 729 729 730 730 730 730 729 65535 65535 65535 65535 65535 65535 65535 65535 65535 65535 65535 65535 65535 65535 65535 65535 65535 65535 65535 65535 65535 65535 65535 65535 65535 65535 65535 65535 65535 65535 65535 65535 65535 65535
65535 65535 65535 65535 65535 65535 65535 65535 65535 65535 65535 65535 65535 65535 65535 65535 65535 65535 65535 65535 65535 65535 65535 65535 65535 751 752 753 752 750 750 750 750 750 749 749 749 749 749 750 751 752 753 753 750 749 749 750 750 750 751 749 747 745 746 748 746 744 744 744 744 745 746 745 744 744 744 745 744 744 745 745 744 744 744 744 744 744 744 744 743 743 744 744 743 744 743 742 742 742 743 742 741 741 740 739 739 741 742 743 745 745 744 744 745 746 747 748 748 748 748 749 749 748 748 748 749 748 749 748 748 749 751 753 753 753 751 751 752 752 751 750 750 751 752 753 752 752 753 752 752 753 754 754 754 754 754 756 756 755 755 755 755 756 756 756 757 758 758 758 757 756 756 757 757 757 757 758 758 757 757 758 759 759 759 759 759 757 756 757 757 756 756 755 753 752 752 752 753 753 752 751 750 750 750 748 746 746 746 747 747 747 747 745 745 746 746 747 747 747 747 747 749 751 752 749 746 745 746 747 745 745 745 746 747 747 749 750 750 749 748 747 747 747 747 747 747 749 750 751 751 751 753 754 754 755 754 754 754 753 752 751 751 751 751 750 749 748 747 746 746 749 750 750 750 749 751 753 752 751 751 751 752 753 752 752 753 753 753 754 756 756 757 759 759 758 758 758 758 759 759 759 758 758 757 757 757 757 757 758 758 757 757 757 757 756 755 754 752 752 752 752 752 754 753 752 752 752 753 755 755 754 754 754 754 755 755 755 755 756 757 756 756 755 755 755 755 754 754 754 754 754 755 755 754 753 753 754 754 751 750 751 751 750 750 750 750 749 749 749 749 748 747 747 748 749 750 750 750 749 750 749 748 747 747 748 746 745 743 742 742 742 743 744 744 744 744 743 743 745 746 745 744 742 741 741 741 740 738 738 737 737 738 738 737 737 738 738 737 737 736 737 736 736 736 736 736 737 738 738 737 737 736 737 738 739 740 740 740 740 740 740 738 737 736 736 737 739 739 738 738 739 740 739 738 737 736 736 736 735 734 733 732 731 730 729 728 728 728 728 728 728 728 727 727 727 728 728 728 728 728 728 728 728 730 731 731 731 731 730 731 731 731 731 731 730 730 730 732 733 734 736 737 738 737 738 738 738 738 739 740 741 741 742 742 740 739 738 738 737 737 736 735 734 734 735 733 731 730 730 730 729 728 727 725 723 723 723 723 724 726 727 726 724 725 725 725 726 727 727 728 728 729 730 730 729 728 728 728 65535 65535 65535 65535 65535 65535 65535 65535 65535 65535 65535 65535 65535 65535 65535 65535 65535 65535 65535 65535 65535 65535 65535 65535 65535 65535 65535 65535 65535 65535 65535 65535 65535
65535 65535 65535 65535 65535 65535 65535 65535 65535 65535 65535 65535 65535 65535 65535 65535 65535 65535 65535 65535 65535 65535 65535 65535 65535 65535 751 752 752 750 750 750 750 751 749 749 749 749 749 749 750 752 754 753 750 749 750 752 751 750 750 750 748 744 744 744 744 744 744 745 746 747 747 746 745 745 747 747 746 744 745 745 744 745 744 744 744 745 745 745 745 744 743 743 743 743 743 742 742 742 743 743 742 741 740 738 737 739 741 742 744 744 743 744 745 746 748 748 747 748 748 748 747 747 748 749 750 750 749 748 748 749 752 753 753 753 753 751 751 751 750 750 750 752 754 753 751 751 751 751 751 754 755 754 754 754 754 757 757 755 756 755 755 755 756 756 756 756 757 757 756 756 756 757 757 757 757 759 759 758 758 759 759 758 759 759 760 757 756 757 757 755 754 754 754 753 752 752 752 752 752 752 752 752 750 747 746 746 746 747 747 747 747 744 744 744 744 745 747 747 747 748 750 751 750 748 745 745 745 745 745 744 744 744 745 746 748 749 749 749 749 747 747 747 747 747 746 747 750 751 750 750 751 753 754 755 754 754 753 752 752 751 750 749 750 750 750 748 746 746 746 747 747 749 749 749 751 751 751 751 751 751 751 751 752 753 755 753 753 755 756 756 756 758 759 758 758 758 758 759 758 757 757 756 757 757 757 757 757 758 758 757 757 757 756 756 755 754 752 752 752 752 752 752 752 753 753 753 754 754 754 754 754 755 755 756 756 755 756 757 756 755 754 753 754 755 754 754 754 754 754 754 756 755 754 753 753 753 753 752 750 750 750 750 750 750 750 748 749 749 749 748 747 746 747 748 749 748 748 748 748 748 747 747 748 748 747 745 743 743 742 743 743 744 744 744 743 742 743 745 746 745 743 742 741 741 741 740 738 738 737 737 737 737 736 736 738 738 737 735 734 735 735 735 735 734 735 737 737 737 737 736 736 738 738 738 738 738 739 740 741 740 737 736 736 737 739 740 740 738 737 738 739 739 738 737 737 737 737 737 737 736 733 730 729 729 729 729 728 728 728 729 728 727 727 727 727 728 728 728 728 728 728 729 730 731 730 729 728 729 730 731 731 731 730 730 730 731 731 732 733 735 737 738 737 738 738 738 738 739 739 740 740 741 742 741 739 737 737 737 736 736 735 734 733 733 732 731 729 730 730 729 729 728 726 723 723 723 723 724 726 727 726 725 725 726 726 727 727 728 727 728 729 729 729 728 728 728 728 65535 65535 65535 65535 65535 65535 65535 65535 65535 65535 65535 65535 65535 65535 65535 65535 65535 65535 65535 65535 65535 65535 65535 65535 65535 65535 65535 65535 65535 65535 65535 65535 65535
65535 65535 65535 65535 65535 65535 65535 65535 65535 65535 65535 65535 65535 65535 65535 65535 65535 65535 65535 65535 65535 65535 65535 65535 65535 65535 748 750 751 751 750 750 750 751 750 749 749 749 749 749 750 752 753 753 750 750 752 753 751 747 747 749 747 744 744 745 744 744 744 746 747 748 747 746 746 746 746 747 746 744 743 743 744 746 746 745 745 746 746 746 746 744 743 743 743 743 743 742 742 742 744 744 742 741 739 738 737 738 739 741 743 743 743 745 746 746 746 746 746 747 748 747 746 746 747 749 750 750 748 748 749 751 752 752 751 752 752 751 751 751 750 750 750 752 755 753 750 750 750 751 751 754 755 755 755 755 756 757 756 755 756 756 755 755 755 755 755 756 757 757 756 756 757 757 757 756 756 757 758 758 759 759 758 759 760 760 760 757 756 757 757 754 754 754 754 754 753 753 753 752 752 752 752 751 749 747 746 746 746 746 747 746 746 744 744 744 744 746 748 748 747 748 750 749 748 748 746 745 745 745 745 744 744 744 745 747 748 748 749 749 749 748 747 747 747 747 746 746 749 750 749 749 750 752 754 754 753 752 751 751 751 750 749 749 749 750 749 747 746 746 746 746 747 748 748 749 750 751 752 752 751 751 751 751 752 754 755 755 755 756 756 756 757 758 758 758 759 759 759 757 756 756 756 756 757 757 757 757 757 759 758 757 756 755 754 754 753 753 752 752 752 752 752 752 752 753 754 754 754 754 754 754 754 754 755 756 755 755 755 756 755 754 753 753 753 754 754 754 754 754 754 755 755 755 754 754 753 752 751 751 749 749 750 750 750 750 749 747 747 748 748 748 746 745 746 748 748 746 746 746 746 746 748 748 748 747 746 745 745 744 743 742 742 742 743 743 742 741 741 743 744 744 743 742 743 743 742 740 739 739 737 736 736 736 736 736 737 736 735 734 733 733 734 734 733 733 734 735 737 735 735 735 736 737 738 738 737 737 738 740 740 739 736 735 736 738 739 740 739 737 737 737 738 738 738 737 737 737 737 738 738 737 733 731 729 729 730 730 730 729 729 729 728 727 726 726 726 727 727 728 728 729 730 732 732 732 730 729 728 728 729 730 731 730 729 730 730 731 732 732 733 734 736 737 737 738 738 738 739 739 739 739 739 741 742 740 739 738 737 736 736 735 735 733 732 732 731 729 728 728 728 728 728 728 726 724 723 723 723 723 725 727 726 725 726 727 727 727 727 727 727 727 727 728 728 728 728 728 728 65535 65535 65535 65535 65535 65535 65535 65535 65535 65535 65535 65535 65535 65535 65535 65535 65535 65535 65535 65535 65535 65535 65535 65535 65535 65535 65535 65535 65535 65535 65535 65535 65535
65535 65535 65535 65535 65535 65535 65535 65535 65535 65535 65535 65535 65535 65535 65535 65535 65535 65535 65535 65535 65535 65535 65535 65535 65535 65535 748 748 750 752 751 750 750 751 751 750 749 749 749 749 749 750 752 750 749 749 751 753 750 746 746 747 745 744 746 750 748 746 746 745 746 746 746 746 747 746 746 746 745 744 743 743 743 744 746 746 746 745 746 746 746 745 745 744 743 743 743 743 743 742 743 743 741 739 738 737 738 739 740 742 743 744 744 746 747 744 744 744 745 746 746 746 746 746 746 747 748 749 748 749 750 751 753 752 751 751 751 752 753 752 751 750 751 752 753 752 750 750 750 751 752 752 754 754 754 755 755 755 755 754 755 756 756 755 755 755 755 756 757 757 756 756 756 757 756 755 755 755 755 757 758 758 758 759 761 761 758 756 755 755 755 754 754 755 755 754 753 753 753 753 752 750 750 750 749 749 747 746 746 746 746 745 746 745 744 744 745 747 748 747 746 748 749 748 747 747 747 745 745 745 744 746 746 746 748 748 749 748 748 749 749 748 747 748 747 747 746 747 748 749 749 750 749 750 753 753 752 751 750 750 750 749 749 749 749 750 748 747 746 747 747 747 747 747 747 748 749 750 751 751 751 751 751 751 752 754 755 756 756 756 756 756 757 758 758 757 759 759 758 757 756 755 755 756 757 757 757 757 757 757 757 755 754 754 753 752 752 752 753 753 752 752 752 752 752 754 754 753 753 753 754 754 753 753 755 756 756 755 754 754 753 753 753 753 753 755 755 754 754 753 754 754 754 754 753 752 752 751 750 749 749 749 750 750 749 749 748 747 747 747 746 746 745 745 746 747 747 746 746 746 747 748 749 748 747 746 745 745 745 745 743 741 741 740 741 741 740 740 741 742 744 744 743 742 742 743 742 741 740 740 738 737 736 736 736 736 735 734 734 734 733 733 733 734 733 733 734 734 736 735 735 735 735 737 737 737 736 736 737 738 739 737 736 735 735 738 738 738 738 737 738 738 738 738 737 736 736 737 737 736 736 735 733 731 730 730 731 730 728 728 728 728 727 727 726 725 725 726 727 728 728 729 731 732 734 733 731 729 728 728 729 730 729 728 728 729 730 731 732 733 733 734 735 736 737 738 737 738 738 738 737 737 738 740 741 739 738 738 737 737 736 735 734 733 732 731 730 728 728 727 727 727 727 726 726 726 724 723 723 723 724 725 724 724 726 727 728 728 728 727 727 726 726 726 727 727 728 728 729 729 65535 65535 65535 65535 65535 65535 65535 65535 65535 65535 65535 65535 65535 65535 65535 65535 65535 65535 65535 65535 65535 65535 65535 65535 65535 65535 65535 65535 65535 65535 65535 65535
65535 65535 65535 65535 65535 65535 65535 65535 65535 65535 65535 65535 65535 65535 65535 65535 65535 65535 65535 65535 65535 65535 65535 65535 65535 65535 65535 749 749 749 751 752 751 751 750 750 749 749 749 748 747 748 748 748 748 749 751 751 749 746 747 747 745 744 748 751 749 747 747 745 745 746 746 746 746 747 746 746 746 745 744 743 743 743 745 745 745 744 743 744 745 745 746 746 745 744 745 746 745 742 742 741 739 737 737 737 739 739 738 740 743 744 745 745 745 744 744 745 747 747 747 746 746 746 746 746 746 747 747 748 749 751 752 752 752 751 751 752 753 752 751 750 750 751 751 750 749 750 750 751 751 752 752 753 751 752 754 754 753 753 753 753 754 754 755 755 755 755 757 757 756 756 756 757 757 756 755 755 755 756 757 758 758 759 761 761 758 756 755 755 754 755 757 757 757 755 753 753 753 752 751 751 751 751 751 749 749 748 746 747 748 746 745 744 744 744 745 745 745 746 746 747 747 746 745 744 745 745 745 745 745 746 747 747 748 749 749 748 748 748 748 746 746 747 748 746 747 748 748 749 751 751 749 749 750 751 752 752 750 750 749 749 749 749 749 749 747 746 747 748 748 748 748 747 747 748 750 750 750 750 750 751 751 751 751 752 753 755 755 756 757 757 757 758 758 757 758 758 758 757 756 755 755 756 757 757 757 757 756 756 756 755 754 754 753 753 753 754 754 752 752 752 752 752 752 753 753 752 752 752 753 753 752 753 755 755 755 754 753 752 752 753 753 753 753 755 755 754 753 753 753 753 754 753 753 752 751 751 750 749 749 750 750 749 749 748 748 747 748 748 746 745 745 745 745 746 747 746 746 747 748 749 749 748 746 745 744 744 744 745 743 742 740 739 739 739 740 740 741 742 744 745 744 742 741 741 741 741 740 740 739 738 737 736 736 734 734 734 734 735 735 734 733 734 734 734 733 732 733 734 734 734 735 736 736 736 735 735 735 736 737 737 735 734 734 735 737 737 737 738 739 738 737 737 737 736 735 736 736 736 735 735 733 732 732 731 731 729 727 727 727 727 727 727 726 725 725 726 727 728 728 728 728 730 732 732 730 729 728 728 729 729 728 728 728 729 730 730 730 732 734 734 734 735 736 737 737 737 737 737 737 737 738 738 739 738 738 738 737 736 735 734 732 732 731 730 729 728 728 727 727 727 726 725 725 726 724 723 723 723 724 724 724 724 726 727 728 728 728 728 728 726 725 726 726 726 727 728 729 730 65535 65535 65535 65535 65535 65535 65535 65535 65535 65535 65535 65535 65535 65535 65535 65535 65535 65535 65535 65535 65535 65535 65535 65535 65535 65535 65535 65535 65535 65535 65535 65535
65535 65535 65535 65535 65535 65535 65535 65535 65535 65535 65535 65535 65535 65535 65535 65535 65535 65535 65535 65535 65535 65535 65535 65535 65535 65535 65535 750 749 749 749 752 751 749 748 748 749 748 748 747 747 747 747 747 748 751 751 751 749 747 746 746 743 744 748 750 749 748 748 746 746 747 746 746 746 748 747 745 745 744 743 743 743 743 743 743 744 743 742 742 743 745 745 745 745 746 747 746 745 743 741 739 737 737 737 738 739 739 738 739 741 743 743 744 744 744 745 748 749 749 749 749 747 746 746 746 746 746 747 748 749 750 750 750 751 751 751 752 752 750 750 749 751 751 751 749 749 749 749 750 751 751 752 751 751 751 753 753 753 753 753 753 753 753 754 754 754 754 756 757 756 756 756 757 758 757 757 756 755 756 756 757 758 760 761 760 759 757 756 755 754 755 756 756 756 755 754 753 753 752 752 752 752 752 750 749 749 748 747 748 749 747 745 745 744 744 744 744 744 744 745 745 744 743 743 743 744 745 745 746 746 747 747 746 747 748 748 747 747 747 747 745 745 747 747 746 747 749 749 750 751 751 750 749 749 751 752 753 751 750 750 750 751 750 750 748 746 746 746 747 748 747 747 747 747 749 750 750 750 750 750 750 751 751 751 751 752 753 754 754 756 757 757 758 758 757 757 757 757 758 757 755 754 756 757 757 757 756 756 756 757 755 754 754 754 753 754 754 754 752 752 752 752 752 751 751 751 751 751 752 752 752 752 753 754 754 754 753 752 752 752 752 752 752 753 754 754 753 752 752 752 753 754 753 753 752 751 750 750 749 749 749 749 748 748 748 748 748 748 748 747 746 746 744 744 744 745 746 746 747 748 749 748 747 745 744 744 744 744 743 743 742 740 739 739 739 740 742 742 742 744 745 744 743 741 740 740 740 739 739 739 738 737 737 735 734 734 734 735 735 735 733 733 733 733 732 731 731 731 731 731 733 734 735 736 735 735 734 734 735 736 736 735 734 733 733 735 737 738 738 738 736 735 736 736 735 734 734 735 735 735 734 733 733 733 732 730 728 727 727 727 727 727 727 725 725 725 726 727 728 726 726 726 728 730 731 729 728 728 728 728 728 728 728 728 729 729 729 729 732 733 734 734 734 736 737 736 735 736 736 736 737 737 738 738 738 738 737 736 735 735 733 732 732 731 730 728 727 728 727 726 726 725 723 723 723 724 723 723 723 724 724 724 725 726 727 728 728 727 727 727 726 725 725 726 727 728 728 729 729 65535 65535 65535 65535 65535 65535 65535 65535 65535 65535 65535 65535 65535 65535 65535 65535 65535 65535 65535 65535 65535 65535 65535 65535 65535 65535 65535 65535 65535 65535 65535 65535
65535 65535 65535 65535 65535 65535 65535 65535 65535 65535 65535 65535 65535 65535 65535 65535 65535 65535 65535 65535 65535 65535 65535 65535 65535 65535 65535 752 750 749 749 751 749 748 748 748 749 748 748 748 749 749 747 747 749 751 752 752 750 747 744 743 743 743 746 748 749 749 748 748 747 747 746 746 748 749 747 745 744 744 743 743 743 743 743 743 743 742 742 742 743 745 746 745 745 746 746 745 745 743 740 737 737 738 737 737 739 739 738 738 739 740 742 744 745 744 745 747 748 748 748 748 747 746 746 746 746 746 747 748 749 749 749 749 749 751 751 751 751 750 749 750 752 752 750 749 749 751 751 751 751 751 751 751 751 752 752 753 753 753 753 753 753 753 753 753 753 753 755 756 756 756 756 757 756 756 756 757 756 755 755 756 757 757 758 758 758 757 756 755 755 754 754 754 753 752 752 752 753 754 754 753 751 750 750 749 749 749 748 748 749 748 746 744 744 744 744 744 744 744 744 744 743 743 743 744 746 746 746 747 749 749 747 746 746 747 747 746 746 746 747 745 745 746 746 746 747 749 750 751 751 750 750 750 750 751 752 753 751 750 751 752 752 751 750 747 746 746 746 747 748 747 748 747 748 749 749 749 750 751 751 752 752 751 751 752 753 753 753 754 755 756 757 758 758 757 757 757 757 757 757 756 756 757 758 757 755 755 756 757 756 756 756 756 755 754 753 753 753 753 753 752 751 751 750 749 749 749 750 751 751 752 752 753 753 753 753 752 752 752 752 752 751 751 751 752 752 752 752 752 752 752 753 752 752 751 751 750 750 749 749 748 747 747 747 748 748 747 746 746 746 746 745 744 743 743 744 744 745 745 747 747 747 747 746 745 745 745 743 743 743 742 741 740 739 739 742 743 743 742 744 744 743 742 741 740 740 739 739 739 738 737 737 737 736 734 734 735 736 735 734 732 732 732 732 731 731 731 731 731 731 732 732 733 734 734 733 734 734 735 735 734 734 733 732 733 734 736 737 737 737 734 734 734 735 735 734 734 734 733 733 733 733 733 733 732 731 729 728 727 727 727 727 727 725 725 725 726 726 726 726 726 726 728 729 731 729 728 728 728 728 728 728 728 728 729 729 729 729 730 732 733 733 733 736 736 735 734 734 735 737 737 738 739 738 738 738 738 736 735 735 734 733 732 732 730 728 727 727 726 725 725 724 723 723 723 722 723 723 723 723 724 724 725 726 727 728 728 727 727 726 725 725 725 726 727 728 728 728 729 729 65535 65535 65535 65535 65535 65535 65535 65535 65535 65535 65535 65535 65535 65535 65535 65535 65535 65535 65535 65535 65535 65535 65535 65535 65535 65535 65535 65535 65535 65535 65535
65535 65535 65535 65535 65535 65535 65535 65535 65535 65535 65535 65535 65535 65535 65535 65535 65535 65535 65535 65535 65535 65535 65535 65535 65535 65535 65535 751 751 750 751 751 749 748 748 749 749 747 747 748 749 748 747 747 747 749 751 751 750 746 744 743 743 743 745 747 748 747 747 746 746 746 748 748 748 749 747 745 744 744 744 744 743 743 743 743 742 742 742 743 743 745 746 745 744 744 743 741 741 741 739 738 738 739 736 734 735 738 739 738 738 739 742 744 744 744 744 745 745 745 745 745 746 746 746 746 746 746 747 748 748 748 748 749 749 749 749 750 749 749 748 750 751 751 749 749 750 753 753 753 752 751 751 751 752 753 754 754 754 753 753 753 753 753 753 753 753 753 754 755 757 756 756 755 754 753 755 756 756 756 754 755 755 756 755 756 757 757 757 756 755 754 754 753 752 752 752 752 752 753 753 752 750 750 750 750 749 749 749 748 748 748 746 745 744 744 744 744 744 744 744 744 743 743 744 746 747 748 747 747 749 749 748 746 745 746 746 746 746 745 746 745 745 745 746 746 748 750 751 751 751 750 750 750 749 749 750 751 750 750 751 751 751 750 748 747 746 746 746 746 747 746 747 749 749 749 750 750 751 752 754 753 753 753 753 754 754 754 755 756 757 756 756 757 758 758 757 757 757 757 758 757 757 758 758 756 754 755 757 756 755 756 758 757 756 754 752 752 753 754 754 752 750 750 750 749 749 749 750 751 751 751 751 751 753 753 752 752 752 752 752 751 751 751 751 751 752 752 752 751 750 750 750 750 750 750 750 749 749 749 748 747 747 746 746 747 747 746 745 745 745 745 744 744 743 743 743 743 744 743 744 745 745 746 746 745 746 745 744 743 741 741 740 740 740 739 741 742 742 742 743 742 741 741 741 740 740 740 739 738 737 737 737 738 738 736 735 735 736 736 734 733 731 731 731 731 731 731 731 731 731 731 731 731 732 733 733 733 734 734 733 732 731 732 733 733 734 735 735 735 734 733 733 734 735 735 734 733 733 732 731 731 732 732 732 732 731 730 728 728 727 727 727 726 725 725 725 726 725 725 726 726 727 727 728 729 729 729 729 728 728 728 728 729 729 729 730 729 729 730 731 732 732 733 735 736 734 734 734 736 737 737 738 738 738 737 738 738 737 736 736 735 735 734 732 731 729 728 728 726 726 725 725 724 723 723 722 722 722 723 723 725 725 725 726 727 728 728 727 727 726 725 725 725 725 726 727 728 728 728 730 65535 65535 65535 65535 65535 65535 65535 65535 65535 65535 65535 65535 65535 65535 65535 65535 65535 65535 65535 65535 65535 65535 65535 65535 65535 65535 65535 65535 65535 65535 65535
65535 65535 65535 65535 65535 65535 65535 65535 65535 65535 65535 65535 65535 65535 65535 65535 65535 65535 65535 65535 65535 65535 65535 65535 65535 65535 65535 65535 749 749 748 749 748 748 748 748 747 745 746 747 747 747 747 747 746 747 749 751 748 745 744 743 743 743 744 747 747 745 744 745 745 745 747 747 747 747 747 746 745 744 746 746 746 744 743 743 742 742 743 743 744 746 746 746 745 744 742 739 739 739 738 738 739 737 734 732 733 738 740 739 739 741 742 743 744 743 744 745 745 744 744 744 745 745 746 746 746 745 746 747 747 746 747 748 748 747 748 749 749 748 748 749 750 749 749 749 751 753 753 752 752 751 751 751 753 754 754 755 754 754 754 755 755 754 753 753 753 753 752 754 756 757 756 754 753 754 755 756 757 757 755 754 754 754 755 755 757 757 756 756 755 754 754 753 753 753 753 752 752 752 752 751 750 750 750 749 749 749 748 748 748 748 747 745 744 744 744 744 744 744 744 744 744 743 745 745 746 748 747 746 747 748 747 745 744 745 746 745 744 745 745 745 745 745 746 746 748 751 752 751 750 750 750 751 750 748 748 749 749 749 749 748 748 748 747 747 746 746 745 745 746 746 747 749 749 749 750 750 751 753 753 753 753 753 754 754 754 755 756 757 757 757 756 757 758 758 758 757 757 757 756 755 756 758 758 755 754 754 754 754 754 755 757 757 756 754 752 752 753 754 754 752 750 750 750 749 749 749 750 750 751 751 751 752 753 753 752 751 751 750 750 749 750 751 751 751 751 752 751 750 749 748 748 749 750 750 749 748 748 748 747 746 746 746 746 746 746 745 746 746 746 746 746 744 743 742 742 742 743 743 743 744 744 744 745 745 746 746 744 742 740 739 740 741 740 739 739 739 740 741 741 741 741 741 742 741 741 740 739 738 737 737 738 738 738 737 735 735 736 736 735 733 732 731 731 731 731 731 731 731 731 731 731 731 732 733 732 732 733 733 732 730 730 731 733 733 734 734 734 733 732 733 734 735 735 734 733 733 733 732 731 731 731 730 730 730 729 728 727 726 725 725 726 724 724 723 724 725 725 726 726 727 727 727 728 728 728 728 729 729 728 729 729 729 730 730 729 729 729 730 731 732 731 733 735 735 734 734 734 736 737 737 737 737 737 736 737 739 738 737 736 736 735 734 732 731 730 729 728 727 727 726 725 724 723 722 721 721 722 723 724 725 726 726 725 725 726 726 727 727 726 725 725 724 724 724 725 726 727 728 729 65535 65535 65535 65535 65535 65535 65535 65535 65535 65535 65535 65535 65535 65535 65535 65535 65535 65535 65535 65535 65535 65535 65535 65535 65535 65535 65535 65535 65535 65535 65535
65535 65535 65535 65535 65535 65535 65535 65535 65535 65535 65535 65535 65535 65535 65535 65535 65535 65535 65535 65535 65535 65535 65535 65535 65535 65535 65535 65535 748 748 748 748 749 749 748 747 746 745 745 746 746 746 747 747 746 747 749 748 745 743 744 743 743 743 744 745 745 744 743 745 746 746 746 746 747 749 749 747 746 747 747 748 746 744 742 742 741 741 742 742 745 745 745 745 744 743 742 740 739 739 738 738 738 737 735 734 736 738 739 738 740 741 742 742 743 744 745 745 744 744 744 745 745 745 745 745 745 743 744 745 747 746 746 747 748 747 747 748 748 748 748 749 749 749 750 750 752 752 751 751 751 751 751 751 753 753 754 753 752 752 753 754 753 752 752 752 753 752 752 753 755 755 754 753 753 755 756 756 756 757 756 755 754 754 754 755 754 754 754 754 755 755 753 753 753 754 754 754 753 752 753 752 751 750 750 750 750 749 748 748 749 748 747 744 743 743 744 744 744 744 743 743 742 742 743 744 745 746 746 745 746 746 746 745 744 745 744 744 744 746 746 746 745 745 745 745 748 750 751 751 750 750 751 752 750 748 747 747 748 747 747 746 745 746 745 746 746 745 746 746 748 748 748 749 749 749 750 751 752 753 753 753 754 754 753 753 754 755 755 756 757 756 756 756 757 758 757 757 757 756 754 754 755 758 758 756 754 754 754 754 754 754 756 756 755 754 753 752 753 753 752 751 750 750 749 749 749 749 749 749 749 750 751 752 753 753 752 750 750 750 749 750 750 750 750 750 750 751 750 749 748 747 747 748 749 750 749 749 748 748 747 746 746 747 747 747 746 746 746 747 747 746 746 744 742 741 741 741 742 744 743 744 744 743 743 744 744 744 743 741 739 739 740 740 739 738 738 739 740 741 741 741 742 743 743 742 742 741 740 738 737 737 737 737 737 736 735 735 735 736 735 733 731 731 731 731 731 731 731 731 731 731 731 731 731 731 730 730 731 732 731 730 730 731 731 731 732 733 733 732 732 732 734 735 734 733 732 733 733 733 731 731 730 730 729 728 728 727 726 725 725 725 724 724 723 723 724 724 725 726 727 727 728 728 729 729 728 728 729 728 727 727 728 728 729 729 729 729 729 730 731 732 731 732 733 734 734 734 735 735 735 735 735 736 735 736 738 739 738 738 737 736 734 733 731 730 729 728 727 727 726 726 725 724 723 722 722 721 721 722 724 724 725 726 725 725 725 726 725 725 724 724 724 724 724 724 724 725 726 727 728 728 65535 65535 65535 65535 65535 65535 65535 65535 65535 65535 65535 65535 65535 65535 65535 65535 65535 65535 65535 65535 65535 65535 65535 65535 65535 65535 65535 65535 65535 65535
65535 65535 65535 65535 65535 65535 65535 65535 65535 65535 65535 65535 65535 65535 65535 65535 65535 65535 65535 65535 65535 65535 65535 65535 65535 65535 65535 65535 748 748 748 750 751 752 749 746 745 745 745 746 746 747 747 746 745 746 747 746 743 743 743 743 743 743 742 742 743 743 743 745 747 746 746 747 749 751 750 748 747 749 749 748 746 744 743 743 743 742 741 740 742 742 743 744 744 742 741 740 739 739 739 739 739 738 738 737 737 738 738 738 741 743 742 741 741 743 744 744 744 744 744 745 745 745 745 745 744 743 743 745 747 746 746 746 748 747 747 747 747 747 748 748 749 749 751 751 751 751 750 751 751 751 751 751 752 752 752 751 751 751 752 752 750 750 751 751 752 752 752 753 754 754 753 752 752 755 756 755 755 755 756 755 754 754 754 753 752 752 752 753 754 755 754 753 753 754 755 754 753 752 753 753 752 752 752 752 751 750 748 748 748 748 746 743 743 743 743 744 744 743 742 742 742 742 742 744 744 745 744 744 746 746 745 745 745 744 744 744 745 747 747 746 745 744 744 745 747 748 749 750 750 750 751 751 750 748 747 748 747 745 744 744 744 744 744 744 745 745 746 748 749 749 748 749 750 750 750 751 753 753 754 754 755 755 753 753 755 756 755 756 756 756 754 754 756 756 756 756 756 754 753 753 755 757 756 755 754 754 754 754 754 755 757 757 755 754 754 753 752 751 751 750 749 749 749 749 749 749 748 748 749 749 751 751 751 752 751 749 749 749 750 751 750 750 749 749 750 750 749 748 748 747 747 747 748 748 748 748 748 746 745 745 746 747 747 747 746 746 747 748 746 745 744 743 741 740 740 740 741 742 743 744 744 743 742 743 743 743 741 739 739 739 739 738 738 738 739 740 741 741 741 742 744 744 744 743 743 741 741 739 739 738 738 737 736 736 735 735 735 735 734 733 732 732 732 732 731 731 731 731 732 731 731 731 730 730 729 729 730 731 730 730 730 730 729 730 730 731 732 732 732 732 733 733 732 732 733 734 734 732 731 730 731 730 729 728 727 727 726 725 725 725 725 724 723 723 724 724 725 725 726 727 728 728 728 728 728 728 728 727 726 726 727 728 728 728 728 729 728 729 730 731 731 731 733 734 734 735 735 734 734 735 735 735 735 737 738 739 738 738 737 735 734 732 731 730 729 727 727 726 726 724 724 722 722 722 722 722 721 722 721 722 723 724 724 724 725 726 724 723 722 722 723 724 724 725 725 725 725 725 726 727 65535 65535 65535 65535 65535 65535 65535 65535 65535 65535 65535 65535 65535 65535 65535 65535 65535 65535 65535 65535 65535 65535 65535 65535 65535 65535 65535 65535 65535 65535
65535 65535 65535 65535 65535 65535 65535 65535 65535 65535 65535 65535 65535 65535 65535 65535 65535 65535 65535 65535 65535 65535 65535 65535 65535 65535 65535 65535 750 750 751 752 753 751 749 746 745 745 745 745 745 747 748 745 744 744 744 744 743 743 744 743 744 744 743 741 741 742 742 743 744 744 745 747 750 751 750 748 748 748 747 746 745 745 744 744 745 745 742 739 739 740 741 743 743 741 740 740 739 739 739 739 738 738 739 738 738 738 738 738 741 743 742 740 740 741 742 743 744 745 744 744 744 744 745 745 744 743 744 745 746 746 744 745 747 747 747 747 747 748 749 749 750 749 750 750 750 750 751 751 751 751 751 752 752 752 751 751 751 752 751 750 750 750 750 750 752 753 753 754 755 753 752 752 752 754 755 755 754 755 755 754 754 754 753 752 751 751 752 753 753 753 754 753 754 755 755 754 753 752 752 752 752 753 753 752 751 750 749 748 748 748 746 744 743 743 743 744 744 743 742 742 742 742 742 744 745 744 744 744 746 747 745 744 744 744 744 745 745 744 745 744 742 742 744 745 745 746 748 749 750 750 750 750 749 748 748 747 745 744 744 744 744 745 745 744 744 746 746 747 749 749 749 748 749 751 752 751 752 753 754 754 754 755 754 754 755 755 756 756 756 754 753 753 754 754 755 755 754 753 753 754 755 754 753 754 754 756 756 756 755 755 757 757 754 754 755 754 753 752 750 749 749 750 749 748 748 748 748 748 749 749 749 749 750 750 749 748 749 749 750 751 751 751 750 749 750 749 748 747 747 746 746 746 747 747 747 747 746 745 745 744 745 745 746 747 746 746 747 747 745 743 743 742 740 739 739 739 740 741 742 743 744 744 742 742 742 741 739 737 737 738 738 738 738 738 739 740 741 742 742 743 744 744 744 744 743 742 741 741 740 740 739 738 738 737 737 736 735 735 735 734 734 733 733 732 731 731 731 731 731 731 731 731 730 729 728 729 729 729 729 730 730 729 729 729 730 730 731 732 732 731 731 731 731 730 732 733 733 732 730 730 731 731 729 728 728 727 726 725 725 724 724 724 723 723 723 723 724 724 724 725 726 726 727 728 727 726 726 726 725 726 727 728 728 727 728 728 728 728 728 729 730 731 733 734 734 734 734 734 735 736 736 735 735 737 738 739 739 738 736 734 733 732 731 730 729 728 726 726 725 725 723 721 721 722 722 722 722 720 719 720 720 722 723 723 724 725 724 722 721 721 722 723 724 725 726 724 724 725 726 727 65535 65535 65535 65535 65535 65535 65535 65535 65535 65535 65535 65535 65535 65535 65535 65535 65535 65535 65535 65535 65535 65535 65535 65535 65535 65535 65535 65535 65535 65535
65535 65535 65535 65535 65535 65535 65535 65535 65535 65535 65535 65535 65535 65535 65535 65535 65535 65535 65535 65535 65535 65535 65535 65535 65535 65535 65535 65535 65535 752 750 752 751 750 749 746 745 746 745 745 745 745 745 744 744 744 744 744 744 745 744 743 742 744 744 742 741 741 741 741 743 742 744 746 747 748 749 748 747 746 745 744 745 745 744 744 746 747 743 740 740 739 740 742 742 741 741 740 739 740 739 739 739 739 739 739 738 737 737 737 739 741 741 739 740 742 742 743 744 745 744 743 743 743 744 744 744 743 744 743 743 744 743 744 745 746 747 747 747 748 749 749 750 749 749 749 749 749 751 751 751 750 751 752 752 752 751 752 753 751 750 750 751 751 750 750 751 752 752 753 754 753 753 752 753 753 754 754 754 754 755 755 754 754 755 753 751 751 753 754 753 753 753 754 755 755 754 753 753 752 752 752 752 753 752 752 751 750 749 748 748 749 747 745 743 743 744 743 743 743 744 744 743 742 743 745 745 744 744 745 747 746 744 743 743 743 744 744 743 742 742 742 742 742 744 744 744 746 748 748 748 749 748 748 748 748 748 747 745 744 744 744 744 745 745 745 745 745 745 746 747 749 748 748 749 751 751 751 751 753 753 753 754 754 754 754 753 754 755 755 755 754 753 753 753 752 753 754 753 753 754 754 755 753 753 753 755 757 757 756 756 756 757 758 755 755 755 755 753 752 751 750 750 750 749 748 747 747 748 748 748 748 748 748 748 748 748 748 749 750 749 749 749 751 750 749 748 748 746 745 746 745 745 745 745 746 746 745 744 745 744 744 744 744 745 746 746 746 746 745 744 743 743 743 741 739 738 738 739 740 741 742 743 744 743 742 741 739 737 737 737 737 738 738 738 739 740 740 741 742 743 744 744 744 744 745 743 742 741 741 740 740 740 739 739 738 737 736 735 736 736 736 735 735 733 732 732 732 731 731 730 730 730 731 729 728 728 728 728 727 728 729 729 729 729 729 730 730 729 730 730 730 730 730 729 728 730 731 731 730 729 729 729 730 729 729 728 728 728 726 724 723 724 723 722 722 722 722 723 723 724 725 726 727 727 727 726 725 725 725 725 726 727 728 727 726 728 728 728 728 728 729 730 731 732 733 733 733 734 735 737 737 736 736 736 737 737 738 738 737 735 734 733 731 730 729 729 727 726 726 725 725 723 721 721 721 721 720 721 719 719 719 719 721 722 722 721 722 722 722 721 721 721 722 723 724 724 724 724 725 726 728 729 65535 65535 65535 65535 65535 65535 65535 65535 65535 65535 65535 65535 65535 65535 65535 65535 65535 65535 65535 65535 65535 65535 65535 65535 65535 65535 65535 65535 65535
65535 65535 65535 65535 65535 65535 65535 65535 65535 65535 65535 65535 65535 65535 65535 65535 65535 65535 65535 65535 65535 65535 65535 65535 65535 65535 65535 65535 65535 752 749 750 750 748 748 746 745 745 746 745 745 745 745 744 744 744 745 745 745 745 744 742 741 743 743 742 741 741 741 743 743 741 742 743 743 745 746 746 746 745 744 744 744 747 745 744 745 745 744 742 742 742 742 742 742 742 741 741 741 742 741 740 740 739 739 737 737 737 737 737 737 740 739 739 740 743 744 744 744 744 743 742 742 742 743 744 744 744 743 743 743 743 743 745 746 747 748 748 748 749 749 749 749 749 748 749 748 748 749 751 751 749 750 751 752 752 751 752 752 751 750 751 752 751 750 750 750 750 750 752 753 753 753 752 752 753 753 754 753 753 754 754 754 754 754 753 751 751 752 753 752 752 754 755 755 755 754 753 753 754 753 753 753 752 751 752 751 750 748 747 747 748 747 745 745 745 745 745 743 743 744 745 743 742 742 745 746 746 746 746 746 746 744 744 743 743 743 742 741 742 742 743 743 744 745 744 745 747 749 748 748 748 748 748 748 748 748 748 746 745 744 744 744 745 745 745 745 744 744 746 748 749 750 750 750 749 751 752 752 753 753 753 753 754 755 753 753 753 754 754 754 753 753 753 753 752 752 752 753 754 754 754 753 753 753 753 755 758 758 757 757 756 757 758 757 755 756 755 755 754 752 751 750 750 749 747 746 747 748 748 747 747 747 747 747 748 748 748 749 749 746 746 747 750 751 749 747 746 745 745 745 745 745 745 745 746 746 745 743 743 744 745 745 745 744 745 745 745 744 743 743 744 744 744 743 740 738 738 739 739 740 740 741 742 742 741 740 738 737 737 737 739 739 739 739 740 741 741 742 743 743 744 744 745 746 745 744 742 742 741 740 740 740 740 739 738 737 736 736 737 737 737 736 735 735 734 734 733 732 732 731 730 731 730 730 728 728 728 727 727 727 727 728 729 729 730 730 730 729 728 728 728 730 730 727 726 727 730 729 728 728 727 727 728 728 728 728 728 728 726 723 723 723 723 722 721 721 721 722 722 723 725 726 727 727 726 725 723 723 724 725 726 727 727 726 726 727 728 728 728 729 730 731 731 732 733 732 732 733 735 736 735 736 736 737 737 737 737 737 736 734 734 733 732 730 729 728 728 726 725 724 724 723 722 721 721 720 721 719 719 719 719 719 718 720 720 720 720 721 722 721 721 721 721 721 722 724 724 724 725 727 729 730 65535 65535 65535 65535 65535 65535 65535 65535 65535 65535 65535 65535 65535 65535 65535 65535 65535 65535 65535 65535 65535 65535 65535 65535 65535 65535 65535 65535 65535
65535 65535 65535 65535 65535 65535 65535 65535 65535 65535 65535 65535 65535 65535 65535 65535 65535 65535 65535 65535 65535 65535 65535 65535 65535 65535 65535 65535 65535 750 748 749 750 748 747 746 745 745 745 745 745 745 745 746 744 744 744 744 744 744 743 741 741 742 743 741 741 741 743 745 744 741 741 741 743 744 746 746 746 746 745 744 745 748 746 744 744 744 743 742 742 742 742 742 742 743 743 743 744 744 743 741 740 739 739 737 737 737 737 737 737 737 739 739 741 744 745 743 743 744 744 743 742 742 742 743 743 743 743 743 743 743 743 744 746 747 748 748 748 749 750 749 749 748 748 748 748 747 747 749 750 749 749 749 750 751 752 751 751 750 750 751 751 750 750 750 750 750 751 751 752 753 752 751 751 752 753 754 754 753 753 753 753 752 752 752 751 750 750 751 751 753 755 756 755 755 755 753 753 754 754 754 753 751 751 751 751 749 747 747 747 747 746 745 745 745 745 744 744 743 744 743 742 741 742 744 745 745 745 744 744 745 745 744 744 744 742 741 741 742 743 744 744 744 744 743 744 747 748 748 748 749 749 748 748 748 748 747 747 746 745 744 745 745 744 743 743 744 745 747 748 749 750 751 750 750 750 751 752 753 753 753 753 754 754 753 753 753 754 754 753 753 753 754 754 752 752 752 754 755 753 753 754 753 754 754 755 757 758 758 757 756 756 756 756 756 756 755 755 754 752 751 751 750 749 747 746 746 747 747 746 745 746 747 747 747 747 747 748 747 746 746 746 749 750 748 747 745 745 745 744 744 745 745 745 745 746 746 743 742 743 744 745 744 743 743 743 743 743 742 742 743 743 744 742 739 738 738 738 739 739 739 740 740 739 739 738 737 737 737 738 740 741 741 741 741 741 743 743 743 743 744 746 746 745 745 744 744 742 741 740 740 741 740 739 738 738 738 738 738 738 737 736 736 736 736 735 734 733 733 732 731 731 731 730 728 728 728 727 727 727 727 728 729 730 729 730 729 728 727 727 727 729 729 726 725 726 728 729 728 728 727 727 727 727 727 727 728 727 726 723 723 723 723 721 721 721 721 721 721 723 724 726 727 726 724 723 723 723 723 724 725 726 726 726 726 726 727 728 729 730 732 731 731 732 733 732 731 732 734 734 733 733 735 736 736 736 736 736 735 734 734 733 732 730 729 729 728 727 725 725 724 724 723 723 722 722 722 722 720 719 720 719 718 718 720 720 719 720 721 721 721 721 721 721 723 724 724 724 725 727 729 730 65535 65535 65535 65535 65535 65535 65535 65535 65535 65535 65535 65535 65535 65535 65535 65535 65535 65535 65535 65535 65535 65535 65535 65535 65535 65535 65535 65535 65535
65535 65535 65535 65535 65535 65535 65535 65535 65535 65535 65535 65535 65535 65535 65535 65535 65535 65535 65535 65535 65535 65535 65535 65535 65535 65535 65535 65535 65535 65535 746 748 749 748 746 745 745 745 746 746 746 745 745 745 744 743 742 742 743 743 743 741 741 742 742 742 741 741 744 746 744 741 741 741 742 745 747 747 746 745 745 744 744 747 745 743 743 744 744 744 742 742 742 742 742 744 745 744 744 743 742 740 739 739 739 738 738 738 737 737 737 737 739 741 743 744 744 743 743 744 744 743 742 741 741 741 742 743 743 743 743 743 743 744 746 746 746 746 747 749 749 749 748 748 748 749 748 747 747 747 749 749 749 749 749 751 751 751 749 749 749 749 750 750 750 750 750 751 752 752 753 752 751 751 751 752 753 754 754 753 753 753 752 751 751 751 751 751 750 749 750 752 753 754 753 753 753 754 754 754 754 754 753 751 750 750 750 749 748 747 747 746 745 745 745 745 744 744 744 744 742 742 741 741 742 743 743 743 742 742 742 743 744 744 745 744 743 742 741 742 743 743 743 743 742 743 743 745 749 749 749 750 750 749 748 748 747 746 745 744 743 742 743 743 743 743 744 746 747 747 747 748 750 751 750 750 750 751 753 754 753 753 753 754 753 753 753 754 755 753 753 753 753 754 754 752 752 753 755 755 753 753 754 755 756 755 755 755 757 758 755 755 755 755 755 755 755 754 754 754 753 751 750 750 748 746 745 746 746 746 745 745 745 747 747 746 746 746 747 747 746 746 746 747 749 748 746 744 744 744 744 744 744 744 744 744 745 744 743 741 741 742 743 742 740 740 741 742 743 741 740 741 741 741 740 740 739 739 738 739 739 739 740 739 738 737 736 736 736 736 737 739 741 742 742 741 742 743 744 743 744 746 747 747 745 745 746 746 744 742 741 741 741 741 740 740 740 740 739 739 739 737 736 736 737 737 735 735 733 732 731 731 731 731 730 729 728 727 727 727 727 727 727 728 728 728 728 728 726 725 725 726 728 728 725 725 725 727 728 727 727 726 726 727 727 727 728 727 726 725 724 723 722 721 721 721 721 721 721 721 722 724 725 725 725 724 723 723 723 723 724 725 725 725 725 725 725 726 727 728 730 730 730 730 731 732 732 731 731 733 734 733 733 733 734 735 735 735 735 734 734 734 733 733 731 730 729 729 727 726 725 725 725 724 723 723 724 723 721 720 720 721 719 718 718 720 720 719 720 721 721 721 721 721 721 724 725 724 724 725 726 728 729 731 65535 65535 65535 65535 65535 65535 65535 65535 65535 65535 65535 65535 65535 65535 65535 65535 65535 65535 65535 65535 65535 65535 65535 65535 65535 65535 65535 65535
65535 65535 65535 65535 65535 65535 65535 65535 65535 65535 65535 65535 65535 65535 65535 65535 65535 65535 65535 65535 65535 65535 65535 65535 65535 65535 65535 65535 65535 65535 746 747 747 746 745 745 745 746 746 745 745 745 742 742 742 742 742 743 743 744 743 742 741 741 741 741 742 743 744 746 744 742 741 741 742 745 747 746 744 742 743 742 743 742 741 742 743 744 745 744 742 742 742 744 743 744 744 743 742 741 740 739 738 737 737 736 736 737 738 737 737 737 740 742 743 743 743 742 742 742 742 742 741 741 741 741 743 743 744 745 745 743 743 744 745 745 744 745 746 749 749 748 748 748 748 749 749 748 747 748 749 749 749 749 749 750 751 750 750 749 749 749 749 749 750 752 752 751 751 751 752 751 751 752 753 753 753 753 753 752 752 752 752 751 751 751 751 752 751 750 750 751 751 751 751 752 754 755 755 755 754 754 753 752 750 750 750 749 748 747 747 747 745 745 745 745 744 744 745 744 743 742 741 741 741 743 742 741 742 743 742 741 742 744 744 744 743 742 741 740 741 743 743 742 742 742 743 746 748 749 749 750 750 749 747 747 745 744 743 743 741 740 740 741 743 745 746 747 748 747 748 749 751 751 750 749 751 752 754 754 754 753 753 753 753 753 753 754 754 755 754 753 754 754 753 751 751 752 753 753 751 752 754 757 757 756 755 755 756 756 755 755 755 755 755 755 755 754 753 753 752 750 748 747 745 744 744 745 745 744 745 745 746 746 746 746 746 746 747 748 747 746 746 746 748 747 746 745 744 745 744 743 742 743 743 742 742 742 740 739 739 740 741 740 739 740 741 741 741 741 740 740 739 739 740 740 739 737 737 737 739 739 739 739 738 736 736 736 736 736 736 739 740 741 742 741 741 742 743 743 744 746 747 746 745 746 747 747 746 743 741 741 741 741 741 741 741 740 740 740 740 738 737 737 738 736 735 735 734 732 732 732 732 731 730 729 727 728 728 727 727 727 727 727 727 726 726 725 725 725 725 725 725 726 725 725 726 726 725 724 725 726 726 726 726 726 727 727 726 725 725 724 722 721 721 721 721 721 721 721 721 723 724 724 725 725 724 723 723 723 725 725 724 723 724 723 724 725 727 728 729 729 729 729 729 730 731 731 731 733 733 733 733 733 735 735 735 735 734 734 734 734 733 732 732 732 730 728 727 727 727 726 725 724 724 725 725 723 720 720 720 720 719 717 717 719 719 718 720 721 721 720 720 720 722 724 724 724 724 725 726 727 729 731 65535 65535 65535 65535 65535 65535 65535 65535 65535 65535 65535 65535 65535 65535 65535 65535 65535 65535 65535 65535 65535 65535 65535 65535 65535 65535 65535 65535
65535 65535 65535 65535 65535 65535 65535 65535 65535 65535 65535 65535 65535 65535 65535 65535 65535 65535 65535 65535 65535 65535 65535 65535 65535 65535 65535 65535 65535 65535 751 748 745 745 745 745 745 745 745 744 744 743 742 742 742 742 742 742 742 742 742 742 741 741 741 741 742 744 745 744 743 742 742 741 742 743 745 744 742 742 743 743 741 740 740 741 741 742 744 744 742 742 744 745 743 741 741 740 740 740 740 738 736 736 736 736 736 736 737 737 737 737 739 742 742 742 742 742 741 741 741 741 741 741 741 742 743 743 744 746 746 743 743 744 744 744 745 746 747 749 749 749 748 748 747 748 748 748 747 748 748 748 748 749 749 749 749 750 751 751 750 749 749 749 750 751 752 750 749 751 751 752 753 754 754 753 753 752 751 750 750 751 753 753 752 751 751 752 752 751 752 753 752 751 751 753 754 755 755 755 754 753 752 752 751 750 750 750 748 749 750 748 745 745 745 745 744 744 745 745 743 742 741 741 741 742 741 741 742 744 743 741 740 741 742 742 742 741 740 740 740 742 743 742 742 742 742 745 747 748 748 749 751 749 747 745 744 743 742 741 742 741 741 741 742 744 746 746 747 747 748 749 750 752 750 749 750 752 754 754 754 753 752 752 753 752 751 752 754 755 754 753 753 753 753 751 751 751 751 751 751 751 754 757 758 757 757 756 755 755 755 755 755 755 755 755 755 754 752 751 751 749 747 745 744 744 744 744 743 743 744 745 745 746 746 745 745 745 745 746 746 746 746 746 747 747 747 745 745 745 745 743 742 742 742 741 740 740 739 739 739 739 739 740 740 739 740 739 740 740 739 739 739 739 740 740 738 737 736 737 739 739 739 739 737 736 736 736 736 736 737 739 740 741 741 741 742 742 742 742 743 745 746 745 745 746 747 747 746 744 742 741 742 743 743 743 741 741 741 741 741 740 739 739 738 736 736 735 735 734 734 734 733 732 731 729 728 729 730 729 727 726 726 726 725 725 724 724 725 725 725 725 725 725 726 726 726 724 723 723 724 725 726 725 725 725 726 727 727 726 726 725 723 721 721 721 721 722 721 721 721 723 724 724 725 725 725 724 723 723 725 725 724 723 722 723 723 725 727 728 728 728 729 729 730 731 731 731 732 733 733 732 733 734 735 734 734 734 734 733 733 733 732 731 731 732 731 729 728 728 727 726 725 725 725 725 724 722 720 720 720 719 718 717 716 716 716 717 718 719 719 718 718 719 720 722 722 723 724 725 726 727 728 730 65535 65535 65535 65535 65535 65535 65535 65535 65535 65535 65535 65535 65535 65535 65535 65535 65535 65535 65535 65535 65535 65535 65535 65535 65535 65535 65535 65535
65535 65535 65535 65535 65535 65535 65535 65535 65535 65535 65535 65535 65535 65535 65535 65535 65535 65535 65535 65535 65535 65535 65535 65535 65535 65535 65535 65535 65535 65535 754 750 747 746 747 745 745 745 746 746 745 744 742 742 742 742 742 743 742 742 743 743 741 741 741 741 741 742 742 740 740 742 742 741 741 742 743 742 743 743 744 744 742 740 741 741 740 741 743 745 744 744 745 743 740 740 740 740 740 740 740 738 736 736 736 736 736 736 736 736 736 736 738 740 741 741 741 741 742 742 741 741 741 741 741 741 741 742 743 745 745 744 743 744 744 745 746 747 746 747 748 749 748 747 747 747 747 747 746 746 747 746 747 749 749 749 749 750 751 751 751 750 749 749 751 750 750 749 749 751 752 752 754 754 753 752 752 751 750 750 751 751 752 753 753 753 752 752 752 752 752 753 753 752 752 752 753 754 754 754 753 753 753 753 753 752 751 750 749 750 752 750 745 745 746 746 745 744 744 744 743 744 743 741 741 741 740 740 741 743 744 742 740 740 740 740 740 741 741 740 740 741 742 743 743 742 742 744 747 748 748 749 749 748 745 743 743 744 741 741 743 743 742 742 743 744 744 745 747 747 747 748 749 751 750 749 750 752 753 752 753 753 752 753 752 751 750 751 752 753 752 751 751 752 752 751 751 751 751 752 751 751 753 756 757 756 756 756 755 756 756 755 755 756 755 755 754 753 751 750 750 749 747 746 745 744 744 744 744 744 743 743 743 744 743 743 743 743 743 744 746 746 746 746 747 747 748 747 746 745 745 745 744 743 742 741 740 740 739 738 739 738 739 740 739 738 738 737 737 738 738 737 739 739 740 740 739 736 736 737 738 738 737 738 738 736 736 736 737 737 737 739 740 740 740 741 742 741 741 741 742 743 744 745 745 745 746 745 745 745 744 743 743 744 744 742 741 742 742 742 742 741 741 741 741 739 738 737 736 735 736 735 734 733 732 730 729 730 731 730 727 726 725 725 725 724 724 724 725 725 725 725 725 725 725 725 724 723 723 723 724 725 725 725 726 726 726 726 727 726 726 725 724 723 722 722 721 721 722 722 723 723 724 724 725 724 723 723 723 723 724 724 723 722 722 723 724 726 727 727 728 728 729 730 731 732 732 732 733 733 732 731 732 734 735 734 732 733 732 732 731 732 731 731 731 732 732 731 729 728 727 726 725 725 725 724 722 721 720 719 719 719 718 717 716 716 716 716 718 719 719 718 717 717 718 721 722 722 724 726 727 727 727 729 729 65535 65535 65535 65535 65535 65535 65535 65535 65535 65535 65535 65535 65535 65535 65535 65535 65535 65535 65535 65535 65535 65535 65535 65535 65535 65535 65535
65535 65535 65535 65535 65535 65535 65535 65535 65535 65535 65535 65535 65535 65535 65535 65535 65535 65535 65535 65535 65535 65535 65535 65535 65535 65535 65535 65535 65535 65535 65535 749 747 747 748 747 745 747 748 747 746 745 745 746 747 744 743 743 743 744 745 744 743 742 742 741 741 742 741 739 740 741 741 741 742 742 741 741 742 743 744 743 741 740 740 739 739 740 741 743 743 746 745 743 740 740 740 740 740 740 740 739 738 736 736 736 736 735 735 735 736 736 737 739 741 741 740 740 742 743 742 741 741 741 741 741 741 741 742 744 746 744 744 744 744 745 746 746 745 746 747 747 747 746 746 746 746 746 745 745 746 746 746 748 749 749 749 749 750 750 749 749 749 750 750 750 749 749 749 752 753 753 753 753 752 751 752 751 750 750 751 750 751 752 752 752 751 751 751 751 751 752 753 753 752 752 752 752 753 753 754 754 754 754 754 753 751 749 749 749 750 751 746 745 746 747 746 745 744 744 744 745 744 742 741 740 740 740 740 742 742 742 741 741 740 740 740 741 742 740 740 741 742 744 744 742 742 744 747 747 747 747 747 746 743 743 743 743 741 741 743 743 742 743 744 745 744 745 748 747 747 747 748 749 750 749 749 751 751 751 751 752 752 752 751 750 750 750 751 751 751 750 749 750 751 752 751 751 751 751 751 752 754 755 755 753 753 755 755 756 757 756 756 756 755 754 753 751 751 751 751 750 748 747 746 745 744 744 744 743 742 741 741 742 741 741 742 742 742 743 745 746 746 745 746 747 748 748 747 746 744 744 745 745 743 742 741 740 738 737 738 739 739 739 738 738 737 736 736 736 736 738 739 738 738 739 737 735 735 738 737 736 736 737 738 737 736 736 737 736 736 737 738 739 739 740 740 741 740 740 741 743 743 743 744 744 744 744 744 745 744 743 743 744 743 743 742 744 744 743 742 741 741 742 742 741 740 739 738 737 736 735 734 733 733 731 730 729 730 730 729 727 726 726 725 725 725 725 725 725 725 725 725 725 725 724 724 724 723 723 724 723 723 724 725 725 725 725 726 725 725 724 724 723 722 722 721 721 722 722 723 722 723 723 723 721 721 720 721 721 722 721 722 722 723 724 726 727 726 726 728 729 730 730 731 731 731 732 732 733 732 731 732 733 733 733 732 732 732 731 731 731 731 731 731 732 732 731 731 729 727 725 724 724 723 722 720 719 719 718 718 718 718 717 716 716 716 716 717 718 717 716 716 717 719 721 722 723 724 725 726 726 727 727 727 65535 65535 65535 65535 65535 65535 65535 65535 65535 65535 65535 65535 65535 65535 65535 65535 65535 65535 65535 65535 65535 65535 65535 65535 65535 65535 65535
65535 65535 65535 65535 65535 65535 65535 65535 65535 65535 65535 65535 65535 65535 65535 65535 65535 65535 65535 65535 65535 65535 65535 65535 65535 65535 65535 65535 65535 65535 65535 747 747 747 748 748 748 748 747 747 747 746 746 749 747 745 744 744 743 743 745 746 744 743 741 741 741 742 740 739 739 739 741 742 741 740 740 740 741 742 743 743 741 739 739 739 739 739 739 739 740 742 744 743 742 741 742 741 740 740 740 740 740 738 737 736 735 735 734 735 736 737 738 738 740 741 740 740 741 742 743 741 741 741 741 741 741 742 743 745 746 745 744 744 744 744 746 746 745 745 746 746 746 747 747 745 745 745 745 745 746 747 746 746 748 749 748 748 749 748 748 747 748 749 750 750 749 749 750 752 754 752 751 751 751 751 750 751 749 749 750 750 750 751 750 750 750 750 750 750 751 752 753 753 752 752 752 752 752 753 754 755 753 754 754 753 751 749 749 749 750 748 746 745 746 746 747 746 745 744 744 745 745 743 742 740 740 740 740 740 740 741 741 743 741 740 740 741 742 741 740 741 742 744 744 742 742 743 745 745 745 746 746 745 744 743 743 743 742 743 745 743 742 742 744 746 745 745 747 747 748 749 750 750 750 749 749 751 751 749 749 750 750 750 749 750 750 750 750 750 750 749 749 749 750 752 752 752 752 751 751 754 755 755 754 753 754 755 756 756 756 756 756 756 755 754 752 752 752 752 752 751 748 748 747 745 744 744 744 743 741 740 741 741 741 741 742 743 743 743 743 744 744 745 745 746 748 748 747 746 744 744 745 745 744 742 741 740 738 736 737 739 739 739 738 738 737 736 735 736 738 739 739 737 737 737 736 734 735 737 737 736 735 735 736 736 737 736 735 735 735 736 736 737 738 738 738 738 740 740 741 742 742 743 743 743 742 743 743 743 743 743 742 743 743 743 744 745 745 743 742 741 741 742 742 741 741 741 739 737 737 735 733 733 733 733 730 729 730 730 730 729 728 727 726 725 726 726 726 725 725 725 725 725 725 724 724 723 723 723 722 722 721 722 724 724 724 724 725 726 725 724 723 722 722 722 721 721 721 721 721 721 722 722 721 720 720 720 720 720 720 721 721 723 723 725 726 726 725 725 727 728 729 729 729 729 729 730 731 733 732 731 732 732 732 731 731 731 732 732 731 730 731 731 731 731 731 732 732 730 728 726 725 723 722 722 720 718 718 717 717 717 716 716 715 715 716 716 716 716 715 715 716 718 720 722 722 723 724 724 724 725 726 728 728 65535 65535 65535 65535 65535 65535 65535 65535 65535 65535 65535 65535 65535 65535 65535 65535 65535 65535 65535 65535 65535 65535 65535 65535 65535 65535 65535
65535 65535 65535 65535 65535 65535 65535 65535 65535 65535 65535 65535 65535 65535 65535 65535 65535 65535 65535 65535 65535 65535 65535 65535 65535 65535 65535 65535 65535 65535 65535 747 747 747 747 747 747 747 748 750 749 749 749 748 746 745 745 745 744 742 743 744 743 740 739 739 740 740 739 739 739 739 740 740 740 740 740 741 741 742 742 742 740 739 739 739 739 739 739 739 739 740 742 743 743 743 743 742 741 740 739 738 738 738 737 736 735 734 733 735 736 737 736 736 739 741 741 740 741 742 741 741 740 741 741 741 742 742 743 744 746 746 745 745 745 745 746 747 746 745 746 746 746 748 747 745 745 745 745 745 745 746 746 745 746 747 747 747 748 749 747 746 746 747 749 749 748 748 749 750 751 750 749 749 749 750 749 749 749 749 750 750 750 750 749 748 749 750 750 751 752 753 753 752 752 752 752 752 752 753 755 753 752 752 754 753 751 749 749 750 749 749 747 746 747 746 746 745 746 745 745 745 744 744 744 742 741 740 740 739 738 738 740 741 741 740 740 740 740 739 739 740 741 743 743 742 742 743 744 744 743 744 745 745 744 743 743 743 743 744 745 743 743 743 745 746 745 745 745 747 749 750 751 751 749 748 750 752 751 749 748 748 748 748 749 749 749 748 749 749 749 749 749 749 749 751 753 754 754 752 752 754 755 754 753 753 754 756 755 755 755 755 754 755 755 754 754 753 753 752 752 750 748 748 748 746 746 746 744 742 740 739 741 742 743 742 743 743 743 742 742 742 743 744 745 746 746 746 746 745 743 743 744 744 743 742 742 741 739 737 736 737 738 738 738 737 736 735 735 736 738 739 738 736 735 735 734 733 734 735 736 735 734 733 732 734 735 734 733 733 735 736 736 737 738 738 738 739 740 740 740 740 741 742 742 742 741 742 742 742 742 742 741 742 742 743 744 745 743 742 741 741 742 742 742 741 741 741 739 738 737 735 734 733 733 733 732 732 732 732 730 729 727 727 726 726 727 727 727 727 726 725 726 726 725 724 723 722 721 721 721 721 721 721 722 722 722 723 724 726 726 725 724 722 722 722 722 721 721 721 722 721 721 721 720 720 720 720 720 720 720 721 722 723 725 725 725 725 725 725 726 727 728 727 727 728 728 728 731 733 733 731 730 731 731 730 730 730 731 732 731 730 731 731 731 731 732 732 731 730 728 727 725 724 723 722 721 719 718 719 719 718 717 716 715 715 715 715 715 715 715 715 716 718 720 721 721 722 723 722 723 723 725 728 728 728 65535 65535 65535 65535 65535 65535 65535 65535 65535 65535 65535 65535 65535 65535 65535 65535 65535 65535 65535 65535 65535 65535 65535 65535 65535 65535
65535 65535 65535 65535 65535 65535 65535 65535 65535 65535 65535 65535 65535 65535 65535 65535 65535 65535 65535 65535 65535 65535 65535 65535 65535 65535 65535 65535 65535 65535 65535 749 748 747 746 746 746 747 751 752 752 751 750 748 745 745 745 745 744 743 742 742 741 740 739 739 739 739 739 739 741 741 740 739 739 740 740 740 741 740 739 739 739 739 739 739 739 739 739 739 740 740 741 742 742 742 742 741 741 739 738 738 738 738 737 735 733 733 734 735 736 736 736 736 738 740 740 740 740 740 740 739 740 741 742 743 742 742 743 743 745 745 745 746 747 746 746 746 745 744 746 746 747 748 748 746 746 746 746 746 746 745 745 745 745 746 746 746 748 749 748 746 746 747 747 748 748 748 749 749 750 750 749 749 750 749 749 749 749 748 749 749 749 749 748 747 748 749 750 752 752 753 753 753 752 752 752 753 753 753 753 752 751 751 752 751 750 749 749 749 750 750 749 748 748 747 746 745 746 746 746 745 744 745 745 743 742 741 740 739 738 738 738 739 741 741 740 739 738 739 739 740 741 742 742 742 743 744 745 745 743 742 744 744 743 743 744 744 743 743 743 744 744 745 746 746 745 745 745 746 748 749 750 749 747 747 749 752 752 749 748 748 748 748 748 748 747 747 748 749 749 749 749 749 749 750 753 754 753 753 753 755 754 753 753 753 754 755 755 755 754 754 753 753 754 755 754 752 752 751 751 750 749 749 748 748 747 746 743 741 740 739 739 741 742 742 743 743 743 741 741 741 742 743 745 746 745 745 745 744 743 742 743 742 741 742 742 741 740 737 736 736 736 736 737 736 735 734 735 735 737 738 737 736 734 734 733 732 733 733 734 734 733 732 732 732 733 732 731 732 734 735 736 737 739 739 739 739 740 739 739 739 740 740 741 741 741 741 740 741 741 742 741 741 740 741 741 742 741 742 741 741 742 742 742 742 741 740 738 737 737 737 735 734 733 734 734 734 734 732 730 728 726 726 726 727 728 729 728 728 726 726 727 727 726 725 723 721 721 721 721 722 721 721 722 721 721 722 724 725 726 726 725 725 726 725 723 722 721 722 722 721 720 720 720 720 720 721 721 721 721 721 722 723 725 725 724 725 725 724 724 726 727 727 728 728 728 728 730 732 732 730 729 730 730 730 730 731 731 731 731 730 730 731 730 730 731 731 730 729 728 727 725 725 725 724 722 720 720 723 723 721 720 718 716 715 715 715 715 715 715 716 716 716 718 720 721 721 721 721 722 723 725 727 728 729 65535 65535 65535 65535 65535 65535 65535 65535 65535 65535 65535 65535 65535 65535 65535 65535 65535 65535 65535 65535 65535 65535 65535 65535 65535 65535
65535 65535 65535 65535 65535 65535 65535 65535 65535 65535 65535 65535 65535 65535 65535 65535 65535 65535 65535 65535 65535 65535 65535 65535 65535 65535 65535 65535 65535 65535 65535 65535 748 746 746 746 746 749 752 752 751 749 748 746 745 745 745 745 745 744 742 740 740 740 740 740 739 739 739 739 741 741 738 737 738 738 739 739 739 739 739 739 739 739 739 739 739 739 739 739 741 742 742 741 741 741 741 741 740 739 738 739 739 738 737 735 733 733 735 736 736 736 736 736 738 739 739 739 738 738 738 739 740 741 742 742 742 742 743 743 744 744 744 746 746 745 745 745 744 744 745 746 747 748 746 746 746 747 747 748 748 745 745 745 745 745 746 746 747 748 747 746 746 746 747 748 747 747 748 748 749 750 750 751 750 750 749 749 748 747 747 747 748 748 747 747 747 747 749 750 751 752 753 754 753 753 753 753 753 752 752 751 751 751 751 751 750 749 749 749 749 749 750 749 749 748 747 746 746 747 747 747 746 745 745 744 744 742 741 740 738 738 738 739 740 741 740 738 738 739 739 740 741 741 741 742 743 744 745 745 743 741 743 744 743 743 742 742 741 740 742 744 746 746 747 747 745 745 745 745 746 748 749 748 746 745 748 751 751 750 750 750 749 748 748 747 747 748 749 749 749 749 749 750 750 751 752 753 753 753 754 755 755 754 753 753 753 754 755 755 755 754 753 753 754 754 753 751 751 751 750 749 747 747 748 748 747 744 742 740 739 739 739 740 740 741 741 742 740 740 740 740 741 743 745 745 744 743 744 744 743 741 740 740 740 741 740 739 738 737 736 734 734 735 735 735 734 735 735 734 735 736 736 735 733 732 732 731 731 732 733 733 732 732 732 732 732 732 730 730 733 735 736 737 738 739 739 739 739 738 737 738 737 738 739 740 741 741 740 740 740 741 740 739 738 738 738 738 739 740 740 740 741 741 742 742 741 740 738 737 738 738 737 736 735 735 735 735 734 732 731 729 728 727 728 729 729 728 727 727 726 727 728 727 726 725 724 723 722 722 722 722 722 722 721 721 721 722 724 725 725 725 726 726 727 726 725 724 723 723 722 721 720 720 720 720 720 722 722 722 721 721 721 723 725 724 724 724 724 724 724 725 726 727 727 727 727 728 729 730 731 730 729 729 729 729 730 730 730 730 730 730 729 729 730 730 730 730 730 728 728 727 726 726 726 725 723 722 722 725 725 723 721 720 718 716 715 715 715 715 715 716 715 715 718 720 720 720 720 720 721 723 724 726 728 728 65535 65535 65535 65535 65535 65535 65535 65535 65535 65535 65535 65535 65535 65535 65535 65535 65535 65535 65535 65535 65535 65535 65535 65535 65535 65535
65535 65535 65535 65535 65535 65535 65535 65535 65535 65535 65535 65535 65535 65535 65535 65535 65535 65535 65535 65535 65535 65535 65535 65535 65535 65535 65535 65535 65535 65535 65535 65535 748 746 746 746 747 750 752 752 749 747 746 745 746 745 746 746 746 745 742 740 740 740 740 742 741 739 739 739 740 740 737 737 737 737 738 739 740 740 739 739 740 739 739 739 739 739 739 739 739 741 741 741 741 741 741 741 741 740 740 740 739 738 736 735 735 735 736 736 736 736 736 736 737 738 739 739 738 738 738 739 740 741 742 743 743 743 743 743 744 745 745 745 744 744 744 744 744 744 744 745 746 746 746 745 746 748 749 749 747 745 745 745 745 745 745 746 747 748 746 746 746 746 747 747 747 747 748 748 748 749 750 750 750 750 749 748 747 747 747 747 747 746 747 747 747 747 747 748 749 751 752 753 753 752 753 753 752 752 752 752 751 752 753 751 751 750 749 749 749 749 750 750 750 749 748 747 747 747 748 748 747 745 744 744 744 743 742 741 739 738 739 738 738 739 739 738 737 737 738 741 741 741 741 741 742 743 743 743 742 741 741 742 742 741 740 739 739 739 741 743 746 745 744 746 746 745 745 745 745 747 747 746 745 745 746 748 749 749 749 750 749 748 747 747 748 749 749 748 748 748 749 750 751 751 752 753 753 753 754 755 755 755 754 753 752 752 754 755 753 753 753 753 754 755 753 751 751 751 750 747 745 745 746 746 745 743 741 740 739 739 739 740 740 741 741 740 739 739 740 740 741 742 742 742 741 741 742 742 740 738 738 739 739 739 739 738 737 737 735 733 733 734 735 734 734 734 734 734 735 736 735 733 731 731 731 731 731 731 732 732 732 732 731 731 731 730 729 730 732 734 736 737 737 739 739 738 738 738 737 735 735 737 738 739 740 740 740 739 739 739 739 737 736 736 736 735 736 737 738 738 739 740 740 741 740 739 738 738 739 739 739 738 736 736 736 735 734 733 733 732 731 731 730 729 729 728 727 726 727 728 729 728 727 726 725 725 724 723 722 722 721 721 722 722 722 722 724 725 724 724 725 725 726 725 726 726 725 724 723 722 720 721 721 720 720 722 722 721 721 721 721 723 723 723 723 724 725 724 725 725 725 725 725 725 727 728 729 731 731 729 728 728 728 729 729 729 729 729 730 729 728 728 728 729 729 730 729 728 728 728 727 727 727 726 725 725 724 724 723 722 721 719 717 716 715 715 715 715 715 715 715 715 717 720 721 720 720 720 722 723 725 726 727 728 728 65535 65535 65535 65535 65535 65535 65535 65535 65535 65535 65535 65535 65535 65535 65535 65535 65535 65535 65535 65535 65535 65535 65535 65535 65535
65535 65535 65535 65535 65535 65535 65535 65535 65535 65535 65535 65535 65535 65535 65535 65535 65535 65535 65535 65535 65535 65535 65535 65535 65535 65535 65535 65535 65535 65535 65535 65535 747 746 746 746 749 751 752 751 749 746 745 745 746 747 745 745 746 746 743 740 739 739 739 740 740 739 739 739 739 740 737 737 737 739 739 738 739 740 739 739 739 739 739 739 739 739 739 739 739 740 741 742 742 741 741 741 740 740 740 740 739 737 737 737 736 737 736 737 736 736 736 736 736 738 739 740 739 738 738 738 739 740 741 743 743 744 743 742 743 745 744 744 744 744 745 745 744 743 743 744 745 746 745 745 746 748 749 748 745 745 745 745 745 745 745 746 747 747 747 746 746 746 746 747 747 747 747 747 748 748 749 748 748 748 747 746 747 747 747 747 747 747 747 748 749 749 748 748 749 750 751 751 751 752 752 752 752 752 752 752 753 753 753 753 752 751 749 749 749 749 750 752 751 749 748 747 747 747 747 748 746 744 744 743 743 743 742 741 740 740 740 738 737 737 738 737 737 737 738 740 741 741 741 741 741 741 741 741 741 741 741 741 741 740 739 739 739 739 741 744 744 743 743 743 745 745 745 745 745 747 746 745 745 745 745 747 747 747 748 749 749 747 746 746 748 748 748 749 748 749 749 751 752 752 752 752 753 754 754 755 754 754 753 752 752 752 754 754 753 753 753 753 754 754 752 751 751 750 750 747 746 745 745 745 744 743 742 740 739 739 739 739 739 741 741 740 738 739 739 739 739 740 740 740 739 739 740 741 738 737 737 737 737 737 737 736 736 736 734 733 733 733 734 733 733 733 733 734 734 735 734 732 731 731 731 731 731 732 732 731 731 731 730 729 730 729 729 731 732 734 736 736 737 738 738 737 737 737 735 734 734 735 737 738 739 739 739 738 737 737 737 736 735 735 734 733 735 736 737 737 738 739 739 739 738 738 738 738 739 739 740 738 737 737 737 735 734 734 733 733 734 734 733 731 731 729 728 727 728 729 730 729 728 727 726 726 726 723 722 721 721 721 722 722 722 722 723 724 723 723 723 723 723 724 725 726 725 723 723 723 722 722 721 721 720 721 721 721 721 722 722 722 722 723 724 724 725 725 725 726 725 725 725 725 726 728 729 730 730 729 728 727 727 728 728 727 728 728 728 727 726 726 727 728 728 728 728 726 727 728 728 728 728 728 728 726 725 723 722 721 720 717 716 715 716 716 715 715 715 716 716 716 717 719 720 720 720 721 722 723 725 727 727 728 728 65535 65535 65535 65535 65535 65535 65535 65535 65535 65535 65535 65535 65535 65535 65535 65535 65535 65535 65535 65535 65535 65535 65535 65535 65535
65535 65535 65535 65535 65535 65535 65535 65535 65535 65535 65535 65535 65535 65535 65535 65535 65535 65535 65535 65535 65535 65535 65535 65535 65535 65535 65535 65535 65535 65535 65535 65535 65535 748 748 749 750 750 752 752 749 745 745 746 746 746 744 744 746 747 745 742 739 739 739 739 739 739 739 739 739 741 739 738 738 737 738 737 737 738 739 739 740 739 739 739 739 739 739 740 741 741 741 742 742 741 741 740 739 739 739 739 738 736 736 737 738 736 735 736 736 736 736 736 736 737 739 741 741 739 738 738 738 738 740 742 743 743 742 742 743 744 744 744 745 745 745 744 744 743 743 744 745 746 746 746 745 747 747 745 745 745 745 745 745 745 746 746 746 747 747 747 747 747 747 747 748 748 747 748 748 748 748 747 747 747 747 746 746 747 747 747 747 748 748 748 748 749 749 749 750 750 751 751 751 751 752 752 752 752 752 754 754 754 754 753 752 751 750 750 750 750 751 752 751 748 747 747 748 747 747 747 747 745 744 743 742 742 742 742 742 741 741 739 737 737 738 737 737 737 738 739 740 741 742 741 741 741 741 741 741 742 742 742 742 739 739 739 739 740 742 743 743 742 742 742 744 745 746 746 747 748 747 746 746 745 745 746 747 747 747 749 749 746 746 747 747 747 749 750 749 749 749 750 751 752 752 753 753 754 754 754 754 753 753 752 752 752 753 753 753 754 754 752 752 751 750 750 750 750 750 748 747 746 744 744 744 743 742 741 741 741 740 739 738 739 739 738 737 738 738 739 738 739 739 740 740 739 740 740 739 737 737 737 737 736 736 735 735 735 734 733 733 733 734 733 732 732 732 733 733 734 734 733 731 731 731 731 731 731 730 730 730 729 728 728 729 730 730 731 732 734 736 736 736 736 735 734 735 734 734 734 734 734 736 737 738 737 737 737 736 737 737 736 735 734 732 732 734 735 736 737 737 738 738 737 736 736 737 738 738 738 739 739 739 738 737 735 735 735 734 734 735 735 734 733 732 731 730 729 729 729 730 728 727 727 726 726 725 723 721 720 720 721 721 722 722 722 722 723 722 722 722 722 722 723 724 725 724 722 722 723 723 722 722 721 720 720 720 720 721 722 723 723 723 723 724 724 725 726 727 727 727 726 726 726 727 728 729 729 729 728 728 727 726 727 726 726 727 728 727 726 726 726 727 728 728 727 727 726 727 727 726 726 727 728 727 726 724 723 722 721 719 718 716 715 716 715 715 715 715 716 717 717 718 720 721 721 722 722 722 724 726 726 727 728 727 65535 65535 65535 65535 65535 65535 65535 65535 65535 65535 65535 65535 65535 65535 65535 65535 65535 65535 65535 65535 65535 65535 65535 65535 65535
65535 65535 65535 65535 65535 65535 65535 65535 65535 65535 65535 65535 65535 65535 65535 65535 65535 65535 65535 65535 65535 65535 65535 65535 65535 65535 65535 65535 65535 65535 65535 65535 65535 748 749 749 749 749 750 749 748 746 746 747 746 744 743 744 746 746 747 744 741 740 740 740 741 740 740 739 741 741 740 738 736 736 737 737 737 738 740 741 740 738 737 736 738 738 739 740 741 740 739 740 741 740 741 740 740 739 738 737 737 735 735 737 737 736 735 735 736 736 736 737 736 736 738 741 742 740 739 738 738 739 740 740 741 742 743 742 742 743 744 744 745 745 745 744 744 743 743 744 745 745 747 746 745 744 744 744 745 745 745 745 746 746 746 746 746 746 747 747 747 747 747 748 749 748 748 748 749 749 748 748 747 747 746 746 746 747 747 747 747 749 748 747 747 748 749 750 749 750 751 752 752 751 751 751 751 751 752 753 754 754 753 753 752 752 751 750 751 751 750 750 749 748 747 748 749 749 748 748 747 747 746 744 742 742 742 743 743 743 742 740 736 736 737 737 738 738 739 740 740 741 743 742 741 742 742 741 741 742 742 742 741 739 739 739 739 741 742 742 742 742 742 742 744 746 747 747 749 750 749 748 747 745 745 746 747 746 745 746 748 746 746 746 746 746 750 751 750 749 749 750 750 750 752 753 753 753 754 754 753 753 753 752 752 753 752 751 752 754 753 751 750 750 750 749 749 749 750 748 747 745 743 743 743 743 742 742 742 741 740 739 738 739 738 737 737 737 738 738 738 738 739 740 740 739 739 739 739 738 737 738 737 736 736 734 735 736 735 733 732 732 733 732 731 730 731 732 733 733 733 733 732 731 731 731 730 729 729 729 729 728 727 727 728 729 730 731 732 734 734 734 735 735 734 734 734 732 732 733 733 734 736 736 736 735 735 736 736 735 735 734 733 731 730 731 733 733 734 734 735 736 737 736 735 735 736 737 737 737 738 739 740 740 738 737 737 737 736 735 735 735 735 734 733 733 732 731 730 730 729 728 727 726 725 724 724 722 721 720 720 720 721 722 722 722 722 722 722 722 722 723 722 723 724 725 723 721 721 722 722 722 722 722 721 721 720 720 720 721 722 722 723 723 724 724 725 726 728 728 727 727 727 728 728 728 728 728 728 728 727 727 726 725 725 725 726 727 726 726 726 725 726 727 727 727 726 725 726 726 725 725 726 726 725 724 723 721 720 720 720 719 718 716 715 715 715 715 715 716 717 718 720 721 722 722 722 723 724 725 726 727 727 727 726 725 65535 65535 65535 65535 65535 65535 65535 65535 65535 65535 65535 65535 65535 65535 65535 65535 65535 65535 65535 65535 65535 65535 65535 65535
65535 65535 65535 65535 65535 65535 65535 65535 65535 65535 65535 65535 65535 65535 65535 65535 65535 65535 65535 65535 65535 65535 65535 65535 65535 65535 65535 65535 65535 65535 65535 65535 65535 747 748 748 748 749 749 747 746 747 749 748 745 743 742 743 744 743 743 745 744 743 743 742 741 741 740 740 739 738 738 738 736 736 737 736 736 738 740 741 740 736 735 735 736 738 738 739 738 738 739 739 739 739 740 741 739 739 738 737 737 735 735 736 736 735 735 736 736 736 736 736 736 736 737 739 740 740 739 738 738 740 740 739 739 740 743 742 740 740 741 743 743 743 743 743 743 742 742 743 743 744 746 747 745 744 744 744 746 747 748 748 747 746 746 746 746 747 747 747 747 747 747 748 749 749 749 750 749 747 747 747 746 746 746 746 746 746 746 745 746 748 749 747 746 747 749 750 750 750 751 752 752 751 751 751 750 751 752 752 753 753 753 753 752 752 752 751 750 750 750 749 749 747 747 749 751 751 750 749 749 748 747 746 743 742 741 741 741 740 741 739 736 736 737 737 738 739 740 739 739 740 742 743 742 742 741 742 741 741 740 740 739 739 739 739 739 739 740 741 742 743 743 742 743 746 747 748 748 749 749 749 747 745 745 746 747 745 744 744 746 746 746 746 746 747 749 751 751 749 750 751 751 752 754 754 753 753 754 755 754 753 753 752 753 753 752 751 751 752 751 749 750 750 749 749 749 749 751 749 747 745 743 743 744 744 744 743 741 741 740 738 738 738 738 738 737 737 737 737 737 737 738 739 739 739 738 737 738 737 737 737 737 736 735 734 735 735 733 731 730 730 731 732 731 730 731 732 734 734 733 733 732 731 731 731 729 728 728 728 728 728 727 727 727 728 729 730 732 733 732 732 734 734 734 734 733 731 731 733 734 734 734 735 734 733 734 734 735 734 732 732 731 729 728 729 731 732 733 733 734 736 736 735 734 734 736 737 737 737 738 738 739 739 739 739 739 738 736 736 736 735 736 735 735 734 734 732 731 732 732 729 727 727 726 725 724 723 722 720 720 720 721 723 722 722 722 722 722 722 723 722 721 722 723 724 723 721 720 721 721 722 722 722 723 723 721 719 720 721 722 722 723 724 724 724 726 727 728 728 727 727 728 728 728 728 729 729 729 728 726 726 726 726 725 725 726 725 725 725 724 724 724 725 726 725 725 725 725 725 725 725 725 724 723 722 721 720 719 719 719 719 719 717 715 715 715 715 715 716 717 719 721 722 722 722 723 724 724 725 725 725 725 725 725 724 65535 65535 65535 65535 65535 65535 65535 65535 65535 65535 65535 65535 65535 65535 65535 65535 65535 65535 65535 65535 65535 65535 65535 65535
65535 65535 65535 65535 65535 65535 65535 65535 65535 65535 65535 65535 65535 65535 65535 65535 65535 65535 65535 65535 65535 65535 65535 65535 65535 65535 65535 65535 65535 65535 65535 65535 65535 749 747 747 747 747 748 746 745 747 748 746 743 742 742 742 742 742 742 743 744 744 742 742 741 741 741 740 737 736 738 739 738 736 735 734 735 737 739 740 738 735 735 735 737 737 737 738 738 738 739 739 739 739 740 740 738 738 738 737 737 736 736 735 735 735 735 735 736 737 736 735 736 736 736 737 738 739 738 737 739 740 741 739 737 739 742 741 739 739 739 740 741 741 741 741 741 742 742 743 743 744 746 747 745 744 744 744 745 747 748 747 747 746 746 746 747 748 747 747 747 747 747 747 748 748 749 749 748 746 746 746 746 746 746 747 747 745 745 745 746 747 748 747 746 747 747 749 749 750 750 750 751 751 751 751 750 751 752 752 752 753 753 753 752 752 752 750 750 750 750 749 748 748 749 750 751 751 750 749 749 749 748 747 745 743 741 741 740 739 739 738 737 736 737 737 737 738 738 737 737 738 739 741 741 740 741 742 741 740 739 739 739 739 739 739 739 739 739 740 742 742 742 742 742 744 746 746 747 748 750 749 746 744 744 747 747 745 744 744 745 747 746 746 747 747 748 749 751 751 751 752 753 755 756 755 754 754 755 755 755 754 753 753 753 753 753 752 751 751 750 749 749 750 749 749 749 749 750 749 748 747 745 745 745 745 744 743 741 740 739 738 738 738 739 739 738 737 736 736 736 736 736 737 739 739 738 737 737 737 736 735 735 735 734 734 734 733 731 730 730 731 731 731 731 730 731 733 735 734 733 732 731 730 732 731 729 728 728 728 728 727 727 727 726 727 729 730 732 732 731 731 732 733 732 732 731 730 732 733 734 733 732 732 732 732 732 733 734 732 731 730 730 729 728 728 730 731 732 733 734 735 734 734 734 734 736 737 737 737 738 738 738 738 739 739 739 738 736 737 738 737 738 740 737 736 735 733 732 733 733 731 728 727 727 726 724 723 723 721 720 720 720 722 722 722 722 722 722 722 723 722 721 721 722 722 721 719 719 719 720 721 721 723 724 723 721 720 720 722 723 723 723 723 724 725 726 728 728 728 728 728 728 728 728 728 730 730 730 727 726 726 727 727 726 725 724 723 723 723 723 722 722 723 724 724 724 724 725 725 725 726 725 724 721 721 721 720 718 718 719 718 717 716 715 715 715 715 715 717 718 719 721 722 723 723 724 724 724 725 725 724 723 723 722 722 65535 65535 65535 65535 65535 65535 65535 65535 65535 65535 65535 65535 65535 65535 65535 65535 65535 65535 65535 65535 65535 65535 65535 65535
65535 65535 65535 65535 65535 65535 65535 65535 65535 65535 65535 65535 65535 65535 65535 65535 65535 65535 65535 65535 65535 65535 65535 65535 65535 65535 65535 65535 65535 65535 65535 65535 65535 65535 748 747 747 747 747 745 745 746 747 745 742 742 742 742 742 742 742 742 743 743 742 741 742 743 743 742 739 736 738 739 737 734 734 734 736 738 738 738 736 735 735 736 737 737 737 738 738 738 738 739 739 739 739 738 737 738 738 737 737 738 736 735 734 735 734 733 734 736 735 735 736 736 736 736 737 736 736 737 738 739 740 739 737 738 739 739 739 739 739 740 740 741 742 741 741 741 742 743 743 745 747 746 745 744 744 744 746 746 746 746 746 746 746 746 748 748 748 748 748 748 748 748 749 749 749 749 747 747 746 746 746 746 746 748 747 745 745 746 747 748 747 747 746 746 746 747 749 749 749 749 750 751 751 750 751 751 751 752 753 753 753 753 751 750 750 749 749 749 750 749 749 749 750 750 751 750 750 749 749 749 748 746 745 742 741 741 742 740 739 738 736 737 738 737 737 737 737 736 736 736 738 739 738 739 741 742 742 741 741 740 739 739 739 739 739 739 739 740 741 742 742 742 742 743 744 745 745 747 748 747 746 744 744 746 746 745 744 744 745 748 748 748 748 748 747 749 751 752 751 752 753 754 755 755 755 754 754 753 754 754 753 753 753 752 752 752 752 750 749 748 748 749 749 748 749 749 749 749 749 749 747 746 745 744 743 742 740 740 739 738 738 738 739 739 738 736 736 736 735 735 735 736 738 739 738 738 737 736 734 733 733 733 733 733 733 732 730 730 731 731 730 730 730 731 731 732 734 733 731 730 730 730 731 730 729 729 729 728 728 727 727 726 726 727 728 730 731 731 730 730 731 731 731 731 730 730 731 732 733 732 730 730 731 730 731 731 732 732 731 729 729 728 728 729 730 731 732 733 733 733 732 732 733 734 735 735 736 736 738 738 738 738 738 738 738 737 737 738 739 739 739 740 738 736 735 734 733 733 733 730 728 727 726 725 723 723 723 722 720 720 720 721 722 722 722 722 722 722 722 721 721 720 720 720 718 717 717 718 719 720 721 722 723 722 721 720 720 722 723 723 723 723 724 726 727 727 727 727 728 729 729 729 729 729 730 731 729 727 726 727 727 726 725 723 723 723 722 722 722 721 721 722 722 723 724 724 724 725 725 726 726 724 722 722 722 721 719 719 718 716 715 715 715 715 715 715 716 717 718 719 721 722 723 723 725 725 725 725 724 723 722 721 720 720 719 65535 65535 65535 65535 65535 65535 65535 65535 65535 65535 65535 65535 65535 65535 65535 65535 65535 65535 65535 65535 65535 65535 65535
65535 65535 65535 65535 65535 65535 65535 65535 65535 65535 65535 65535 65535 65535 65535 65535 65535 65535 65535 65535 65535 65535 65535 65535 65535 65535 65535 65535 65535 65535 65535 65535 65535 65535 748 747 747 747 747 745 745 746 747 745 742 742 742 742 742 742 742 742 742 743 742 741 741 742 743 743 741 739 736 735 734 734 734 734 736 737 737 737 736 735 735 736 736 738 738 739 739 739 739 739 739 739 738 738 737 738 737 736 736 736 734 734 734 734 733 733 733 734 734 735 737 737 736 737 736 736 737 738 738 738 738 738 737 737 738 739 739 739 740 740 741 743 742 741 741 741 741 742 743 745 747 746 745 744 744 745 747 746 746 746 746 746 746 747 748 749 748 748 749 749 749 749 751 751 751 749 748 747 747 746 746 746 746 747 746 745 745 746 748 747 747 747 746 746 745 747 749 751 750 749 749 750 750 750 751 752 750 750 752 752 753 752 750 749 749 749 748 748 748 749 748 748 749 750 750 749 749 748 747 747 747 745 743 741 741 741 741 741 740 738 737 737 739 739 737 737 737 738 736 737 738 738 738 739 740 741 743 742 741 740 739 740 739 739 739 740 740 740 741 742 743 744 743 744 746 747 747 747 746 745 745 744 744 745 745 744 744 744 745 747 747 748 749 749 749 750 751 751 751 751 752 752 753 754 755 755 753 752 752 753 752 752 752 751 750 751 751 750 748 747 747 747 747 747 748 749 749 749 749 749 746 745 744 743 742 741 740 740 739 739 739 739 739 739 737 736 736 735 735 735 734 734 736 737 737 737 737 736 733 732 732 732 731 731 730 730 730 730 730 729 728 728 729 730 730 731 731 731 730 730 730 730 730 730 729 729 728 728 727 726 725 725 725 726 727 728 729 729 728 729 729 730 730 730 730 729 729 730 731 731 730 730 730 730 730 731 731 731 731 730 728 728 728 728 728 730 731 732 731 730 730 730 732 733 733 733 734 736 738 737 737 737 737 737 738 737 737 737 738 738 737 737 736 736 736 736 735 735 733 731 728 727 726 724 723 723 723 723 721 720 720 721 722 722 721 721 721 720 719 719 720 719 719 719 718 716 716 717 718 719 720 721 721 721 720 720 720 721 722 723 723 724 724 725 727 728 727 728 729 730 730 730 730 730 731 730 729 728 728 728 727 726 724 723 724 723 722 721 721 720 720 720 722 723 724 724 723 724 724 724 724 723 723 724 724 722 721 720 718 715 714 715 715 715 715 715 717 718 719 719 721 722 722 723 725 726 726 726 724 722 721 721 720 719 718 65535 65535 65535 65535 65535 65535 65535 65535 65535 65535 65535 65535 65535 65535 65535 65535 65535 65535 65535 65535 65535 65535 65535
